# .PCD v0.7 - Point Cloud Data file format
VERSION 0.7
FIELDS x y z rgb
SIZE 4 4 4 4
TYPE F F F F
COUNT 1 1 1 1
WIDTH 1040
HEIGHT 1
VIEWPOINT 0 0 0 1 0 0 0
POINTS 1040
DATA ascii
1.4150001 0.420555 -0.51235753 5.0725575e-39
1.4150001 0.4155927 -0.51235753 5.0721918e-39
1.4150001 0.4106304 -0.51235753 5.8068729e-39
1.4150001 0.40566808 -0.51235753 5.6235607e-39
1.4150001 0.40070578 -0.51235753 5.4409701e-39
1.4150001 0.39574352 -0.51235753 5.2562201e-39
1.4150001 0.39078119 -0.51235753 5.989116e-39
1.4150001 0.3858189 -0.51235753 5.2551537e-39
1.4100001 0.37951082 -0.5105471 5.4377443e-39
1.4150001 0.37589431 -0.51235753 5.4402512e-39
1.4150001 0.37093198 -0.51235753 5.4402484e-39
1.4150001 0.36596969 -0.51235753 5.0718358e-39
1.4150001 0.36100739 -0.51235753 4.7026988e-39
1.4150001 0.35604507 -0.51235753 4.795249e-39
1.4150001 0.3510828 -0.51235753 5.0703869e-39
1.4150001 0.34612051 -0.51235753 4.7956021e-39
1.4150001 0.34115821 -0.51235753 4.6104976e-39
1.4150001 0.33619589 -0.51235753 4.9778381e-39
1.4150001 0.33123359 -0.51235753 5.1600714e-39
1.4210001 0.32765478 -0.51453012 4.5175887e-39
1.4210001 0.32267144 -0.51453012 4.1495292e-39
1.4150001 0.31634668 -0.51235753 4.4253902e-39
1.4150001 0.31138438 -0.51235753 3.966933e-39
1.4150001 0.30642205 -0.51235753 3.6910664e-39
1.4150001 0.30145979 -0.51235753 4.0569735e-39
1.4150001 0.29649749 -0.51235753 3.5056045e-39
1.4150001 0.2915352 -0.51235753 3.5970743e-39
1.4150001 0.28657287 -0.51235753 3.3208419e-39
1.4210001 0.2828047 -0.51453012 3.5041598e-39
1.4210001 0.27782136 -0.51453012 3.6881979e-39
1.427 0.27399001 -0.51670265 3.7789516e-39
1.427 0.26898566 -0.51670265 3.2290121e-39
1.427 0.26398125 -0.51670265 2.8595093e-39
1.427 0.25897688 -0.51670265 3.0420999e-39
1.427 0.25397247 -0.51670265 2.9509832e-39
1.4210001 0.24792129 -0.51453012 2.8587876e-39
1.4210001 0.24293797 -0.51453012 2.7655158e-39
1.4210001 0.2379546 -0.51453012 2.8580701e-39
1.4210001 0.23297127 -0.51453012 2.8591407e-39
1.4210001 0.22798793 -0.51453012 3.2268442e-39
1.427 0.22394618 -0.51670265 3.2261254e-39
1.427 0.21894179 -0.51670265 3.1360807e-39
1.427 0.21393742 -0.51670265 3.1368024e-39
1.4330001 0.20981152 -0.51887518 3.4112383e-39
1.4330001 0.20478609 -0.51887518 3.5963526e-39
1.439 0.20059705 -0.52104771 3.3204888e-39
1.439 0.19555059 -0.52104771 3.4116068e-39
1.439 0.19050412 -0.52104771 3.3204916e-39
1.439 0.18545766 -0.52104771 3.7789488e-39
1.439 0.1804112 -0.52104771 3.8714976e-39
1.439 0.17536472 -0.52104771 3.7796649e-39
1.439 0.17031826 -0.52104771 3.8714976e-39
1.439 0.16527179 -0.52104771 3.4119572e-39
1.439 0.16022533 -0.52104771 3.3190455e-39
1.439 0.15517884 -0.52104771 3.0417467e-39
1.439 0.15013239 -0.52104771 2.4903736e-39
1.439 0.14508592 -0.52104771 2.3088508e-39
1.439 0.14003946 -0.52104771 1.8503796e-39
1.439 0.134993 -0.52104771 1.6634674e-39
1.439 0.12994651 -0.52104771 1.2003411e-39
1.439 0.12490005 -0.52104771 1.1981929e-39
1.439 0.11985359 -0.52104771 7.3901398e-40
1.439 0.11480713 -0.52104771 1.0148778e-39
1.439 0.10976066 -0.52104771 1.6609633e-39
1.439 0.10471419 -0.52104771 3.6896203e-39
1.4450001 0.1000833 -0.5232203 3.509545e-39
1.4450001 0.095015787 -0.5232203 5.1647531e-39
1.4450001 0.089948274 -0.5232203 5.6275278e-39
1.4450001 0.084880769 -0.5232203 6.6409594e-39
1.4450001 0.079813264 -0.5232203 7.2809408e-39
1.4450001 0.074745752 -0.5232203 7.2838233e-39
1.4450001 0.069678247 -0.5232203 8.0213897e-39
1.4450001 0.064610735 -0.5232203 7.1912717e-39
1.4450001 0.059543226 -0.5232203 6.3669061e-39
1.4450001 0.054475717 -0.5232203 7.4754018e-39
1.452 0.049647558 -0.52575493 8.0163507e-39
1.4450001 0.0443407 -0.5232203 7.8355593e-39
1.4450001 0.039273191 -0.5232203 7.7462308e-39
1.4450001 0.034205686 -0.5232203 7.2859757e-39
1.4450001 0.029138174 -0.5232203 5.9988494e-39
1.452 0.024187271 -0.52575493 9.3135733e-39
1.452 0.019095214 -0.52575493 7.2849037e-39
1.4580001 0.014061021 -0.52792746 6.3676263e-39
1.4580001 0.0089479228 -0.52792746 6.5495023e-39
1.4580001 0.0038348238 -0.52792746 7.0076064e-39
1.452 -0.0012730142 -0.52575493 7.0086811e-39
1.452 -0.0063650715 -0.52575493 7.4732508e-39
1.4450001 -0.011401895 -0.5232203 7.1015844e-39
1.4450001 -0.016469402 -0.5232203 6.8257192e-39
1.4450001 -0.021536911 -0.5232203 7.1033921e-39
1.452 -0.0267333 -0.52575493 7.65261e-39
1.452 -0.031825356 -0.52575493 7.3785371e-39
1.4580001 -0.037069965 -0.52792746 8.2986829e-39
1.452 -0.042009469 -0.52575493 7.6533163e-39
1.452 -0.047101527 -0.52575493 7.2863386e-39
1.452 -0.052193586 -0.52575493 7.2874204e-39
1.452 -0.057285644 -0.52575493 7.1923549e-39
1.452 -0.062377699 -0.52575493 7.1923549e-39
1.4580001 -0.067748554 -0.52792746 6.9204358e-39
1.4640001 -0.073161498 -0.53009999 7.3788902e-39
1.4640001 -0.078295641 -0.53009999 7.654754e-39
1.4640001 -0.083429776 -0.53009999 7.8391495e-39
1.4640001 -0.088563919 -0.53009999 7.5643576e-39
1.4580001 -0.093314052 -0.52792746 7.5636346e-39
1.4580001 -0.098427154 -0.52792746 7.0093846e-39
1.4580001 -0.10354025 -0.52792746 6.5512805e-39
1.4640001 -0.10910048 -0.53009999 6.9186211e-39
1.4640001 -0.11423462 -0.53009999 7.0097349e-39
1.4640001 -0.11936876 -0.53009999 7.1019334e-39
1.4640001 -0.1245029 -0.53009999 7.5585997e-39
1.4640001 -0.12963705 -0.53009999 7.1012145e-39
1.4640001 -0.13477118 -0.53009999 6.2732489e-39
1.4580001 -0.13933195 -0.52792746 6.4508046e-39
1.4640001 -0.14503947 -0.53009999 2.2116189e-39
1.4640001 -0.1501736 -0.53009999 4.7992272e-39
1.4640001 -0.15530774 -0.53009999 6.457657e-39
1.47 -0.16109942 -0.53227246 6.8242689e-39
1.4640001 -0.16557603 -0.53009999 6.4562122e-39
1.4640001 -0.17071018 -0.53009999 5.9948866e-39
1.4640001 -0.1758443 -0.53009999 5.904486e-39
1.4640001 -0.18097845 -0.53009999 5.9055552e-39
1.4640001 -0.18611258 -0.53009999 6.1799841e-39
1.4640001 -0.19124673 -0.53009999 5.1622392e-39
1.47 -0.1971857 -0.53227246 2.1183541e-39
1.4640001 -0.20151502 -0.53009999 2.4997315e-39
1.4640001 -0.20664914 -0.53009999 5.3509647e-39
1.4640001 -0.21178329 -0.53009999 5.4445966e-39
1.4640001 -0.21691743 -0.53009999 5.9041329e-39
1.4640001 -0.22205158 -0.53009999 6.1803498e-39
1.47 -0.22811678 -0.53227246 6.3650984e-39
1.47 -0.23327197 -0.53227246 3.5102765e-39
1.47 -0.23842716 -0.53227246 1.5687676e-39
1.47 -0.24358234 -0.53227246 7.1923311e-39
1.47 -0.2487375 -0.53227246 6.8253507e-39
1.47 -0.25389269 -0.53227246 6.918268e-39
1.47 -0.25904787 -0.53227246 6.2743419e-39
1.47 -0.26420307 -0.53227246 6.8231997e-39
1.47 -0.26935825 -0.53227246 7.0057987e-39
1.47 -0.27451342 -0.53227246 6.4555116e-39
1.47 -0.27966863 -0.53227246 6.4580283e-39
1.47 -0.28482378 -0.53227246 6.2739916e-39
1.47 -0.28997895 -0.53227246 6.6402504e-39
1.47 -0.29513416 -0.53227246 5.9991997e-39
1.47 -0.30028933 -0.53227246 5.8112184e-39
1.47 -0.30544451 -0.53227246 6.4551416e-39
1.47 -0.31059971 -0.53227246 6.9139632e-39
1.47 -0.31575486 -0.53227246 6.8228522e-39
1.3920001 0.58457661 -0.50891113 7.0046973e-39
1.3920001 0.57969493 -0.50891113 7.0965426e-39
1.3920001 0.57481331 -0.50891113 7.0043469e-39
1.3920001 0.56993163 -0.50891113 6.9135806e-39
1.3920001 0.56505001 -0.50891113 6.6391447e-39
1.3870001 0.55815631 -0.50708318 6.1760128e-39
1.3920001 0.55528677 -0.50891113 6.1760184e-39
1.3920001 0.55040509 -0.50891113 6.3607726e-39
1.3920001 0.54552346 -0.50891113 6.5458869e-39
1.3920001 0.54064178 -0.50891113 6.6384385e-39
1.3920001 0.53576016 -0.50891113 6.8213878e-39
1.3920001 0.53087848 -0.50891113 6.8213878e-39
1.3920001 0.52599686 -0.50891113 6.3636467e-39
1.3980001 0.52336144 -0.51110476 6.4540444e-39
1.3980001 0.51845878 -0.51110476 6.1785337e-39
1.404 0.51576012 -0.51329827 6.0856178e-39
1.404 0.51083642 -0.51329827 5.9037447e-39
1.404 0.50591272 -0.51329827 6.3611285e-39
1.404 0.50098902 -0.51329827 6.5440919e-39
1.404 0.49606526 -0.51329827 6.7295551e-39
1.3980001 0.48904267 -0.51110476 5.9005077e-39
1.3980001 0.48413995 -0.51110476 5.6235607e-39
1.3980001 0.47923729 -0.51110476 5.6242823e-39
1.404 0.47637036 -0.51329827 5.9012364e-39
1.404 0.4714466 -0.51329827 6.2678609e-39
1.4100001 0.46851659 -0.5154919 5.9012266e-39
1.4100001 0.46357188 -0.5154919 6.0848892e-39
1.4100001 0.45862707 -0.5154919 5.6239138e-39
1.4100001 0.4536823 -0.5154919 5.255504e-39
1.4100001 0.44873753 -0.5154919 5.4381002e-39
1.4100001 0.44379279 -0.5154919 5.5306588e-39
1.4100001 0.43884799 -0.5154919 5.6239278e-39
1.4100001 0.43390325 -0.5154919 5.2562201e-39
1.4100001 0.42895848 -0.5154919 5.1629525e-39
1.4100001 0.4240137 -0.5154919 5.255867e-39
1.4100001 0.41906893 -0.5154919 5.2562229e-39
1.4100001 0.41412419 -0.5154919 5.3477025e-39
1.4150001 0.4106304 -0.51731992 5.255867e-39
1.4100001 0.40423465 -0.5154919 5.4402512e-39
1.4100001 0.39928988 -0.5154919 5.6242767e-39
1.4150001 0.39574352 -0.51731992 5.5313622e-39
1.4100001 0.38940033 -0.5154919 5.1633056e-39
1.4100001 0.38445559 -0.5154919 5.3487717e-39
1.4100001 0.37951082 -0.5154919 5.3491248e-39
1.4100001 0.37456605 -0.5154919 5.5306434e-39
1.4100001 0.36962128 -0.5154919 5.3459018e-39
1.4100001 0.36467651 -0.5154919 5.25263e-39
1.4100001 0.35973176 -0.5154919 5.2551481e-39
1.4150001 0.35604507 -0.51731992 4.9803563e-39
1.4150001 0.3510828 -0.51731992 5.0703869e-39
1.4150001 0.34612051 -0.51731992 5.5292113e-39
1.4100001 0.33995268 -0.5154919 5.0707568e-39
1.4100001 0.33500791 -0.5154919 4.7945287e-39
1.4100001 0.33006316 -0.5154919 4.6108535e-39
1.4150001 0.3262713 -0.51731992 4.6097787e-39
1.4150001 0.32130897 -0.51731992 4.6079836e-39
1.4150001 0.31634668 -0.51731992 4.0569735e-39
1.4150001 0.31138438 -0.51731992 3.5978002e-39
1.4100001 0.30533931 -0.5154919 4.2392165e-39
1.4150001 0.30145979 -0.51731992 3.7811124e-39
1.4150001 0.29649749 -0.51731992 3.5967184e-39
1.4150001 0.2915352 -0.51731992 3.4144781e-39
1.4150001 0.28657287 -0.51731992 3.5070269e-39
1.4150001 0.28161058 -0.51731992 3.3212077e-39
1.4150001 0.27664828 -0.51731992 2.9524336e-39
1.4210001 0.27283803 -0.51951349 3.3183392e-39
1.4210001 0.26785466 -0.51951349 3.2257779e-39
1.4210001 0.26287133 -0.51951349 2.7665906e-39
1.4150001 0.25679907 -0.51731992 2.8595065e-39
1.4150001 0.25183678 -0.51731992 2.950986e-39
1.4150001 0.24687448 -0.51731992 2.8587904e-39
1.4150001 0.24191217 -0.51731992 2.5829224e-39
1.4150001 0.23694988 -0.51731992 2.8584345e-39
1.4150001 0.23198757 -0.51731992 3.1346514e-39
1.4150001 0.22702526 -0.51731992 3.1339325e-39
1.4210001 0.22300458 -0.51951349 3.1342955e-39
1.4210001 0.21802124 -0.51951349 3.3201119e-39
1.4210001 0.21303791 -0.51951349 3.0464004e-39
1.4330001 0.20981152 -0.52390063 3.0442537e-39
1.4330001 0.20478609 -0.52390063 3.3194112e-39
1.4330001 0.19976068 -0.52390063 3.6867518e-39
1.4330001 0.19473524 -0.52390063 3.3208447e-39
1.4330001 0.18970981 -0.52390063 3.8714948e-39
1.4330001 0.1846844 -0.52390063 4.1473558e-39
1.4330001 0.17965896 -0.52390063 4.1480775e-39
1.4330001 0.17463355 -0.52390063 4.1477243e-39
1.427 0.16889796 -0.521707 4.0555259e-39
1.427 0.16389358 -0.521707 4.2406262e-39
1.4330001 0.15955727 -0.52390063 3.9651155e-39
1.439 0.15517884 -0.52609414 3.3190399e-39
1.439 0.15013239 -0.52609414 3.3194084e-39
1.439 0.14508592 -0.52609414 3.6896203e-39
1.439 0.14003946 -0.52609414 3.9658344e-39
1.4330001 0.13443014 -0.52390063 3.1364339e-39
1.4330001 0.12940471 -0.52390063 2.767294e-39
1.439 0.12490005 -0.52609414 2.6743795e-39
1.4330001 0.11935386 -0.52390063 2.7665752e-39
1.4330001 0.11432844 -0.52390063 2.9520426e-39
1.4330001 0.10930301 -0.52390063 3.3229859e-39
1.4330001 0.10427759 -0.52390063 4.3349869e-39
1.439 0.09966772 -0.52609414 5.0704037e-39
1.439 0.094621256 -0.52609414 5.990202e-39
1.439 0.089574784 -0.52609414 6.5466058e-39
1.439 0.08452832 -0.52609414 7.0972642e-39
1.439 0.079481855 -0.52609414 6.5476918e-39
1.439 0.074435391 -0.52609414 6.640972e-39
1.439 0.069388926 -0.52609414 7.1901899e-39
1.439 0.064342454 -0.52609414 7.0987104e-39
1.439 0.05929599 -0.52609414 7.6565533e-39
1.439 0.054249518 -0.52609414 8.1142916e-39
1.4450001 0.049408209 -0.52828777 7.6561875e-39
1.439 0.044156585 -0.52609414 7.5593158e-39
1.4450001 0.039273191 -0.52828777 7.1937801e-39
1.4450001 0.034205686 -0.52828777 7.1955905e-39
1.4450001 0.029138174 -0.52828777 9.0384311e-39
1.4450001 0.024070667 -0.52828777 8.0249897e-39
1.4450001 0.019003158 -0.52828777 7.5658052e-39
1.4450001 0.013935649 -0.52828777 6.9222322e-39
1.4450001 0.0088681402 -0.52828777 7.100511e-39
1.4450001 0.0038006313 -0.52828777 6.8253661e-39
1.4450001 -0.0012668772 -0.52828777 6.644572e-39
1.4450001 -0.0063343858 -0.52828777 7.1952276e-39
1.4450001 -0.011401895 -0.52828777 7.1023103e-39
1.4450001 -0.016469402 -0.52828777 7.3803363e-39
1.4450001 -0.021536911 -0.52828777 7.8405942e-39
1.4450001 -0.02660442 -0.52828777 7.1048284e-39
1.4450001 -0.031671926 -0.52828777 7.5640073e-39
1.452 -0.036917415 -0.53084695 7.8380775e-39
1.452 -0.042009469 -0.53084695 7.5604144e-39
1.4450001 -0.046874452 -0.52828777 6.8300492e-39
1.4450001 -0.051941965 -0.52828777 7.1948745e-39
1.4450001 -0.05700947 -0.52828777 7.1952248e-39
1.452 -0.062377699 -0.53084695 7.3828433e-39
1.452 -0.067469753 -0.53084695 7.0129817e-39
1.4580001 -0.072861657 -0.53304052 7.4692908e-39
1.4580001 -0.077974752 -0.53304052 7.3806895e-39
1.452 -0.082745932 -0.53084695 7.1959311e-39
1.452 -0.087837987 -0.53084695 7.5614836e-39
1.452 -0.092930041 -0.53084695 6.8253661e-39
1.452 -0.098022096 -0.53084695 7.6543981e-39
1.452 -0.10311415 -0.53084695 7.469288e-39
1.452 -0.10820621 -0.53084695 7.5604116e-39
1.4580001 -0.11376645 -0.53304052 7.466767e-39
1.4580001 -0.11887955 -0.53304052 7.1912591e-39
1.4580001 -0.12399264 -0.53304052 7.3731337e-39
1.4580001 -0.12910575 -0.53304052 7.0083e-39
1.4580001 -0.13421884 -0.53304052 6.8231969e-39
1.4580001 -0.13933195 -0.53304052 7.0093846e-39
1.4580001 -0.14444505 -0.53304052 6.3593307e-39
1.4580001 -0.14955814 -0.53304052 1.0010456e-40
1.4640001 -0.15530774 -0.53523415 3.5106422e-39
1.47 -0.16109942 -0.53742766 5.9052049e-39
1.4640001 -0.16557603 -0.53523415 6.0856346e-39
1.4640001 -0.17071018 -0.53523415 5.8115687e-39
1.4640001 -0.1758443 -0.53523415 6.7338739e-39
1.4640001 -0.18097845 -0.53523415 6.6431104e-39
1.4640001 -0.18611258 -0.53523415 6.272544e-39
1.4640001 -0.19124673 -0.53523415 4.429e-39
1.4640001 -0.19638087 -0.53523415 1.1067357e-39
1.4640001 -0.20151502 -0.53523415 3.5074192e-39
1.4640001 -0.20664914 -0.53523415 5.7190255e-39
1.4580001 -0.21091531 -0.53304052 5.9041357e-39
1.4640001 -0.21691743 -0.53523415 5.9963285e-39
1.4640001 -0.22205158 -0.53523415 6.1799939e-39
1.4640001 -0.22718571 -0.53523415 5.8126533e-39
1.4640001 -0.23231985 -0.53523415 2.2148657e-39
1.4640001 -0.237454 -0.53523415 3.1353773e-39
1.47 -0.24358234 -0.53742766 6.1785519e-39
1.47 -0.2487375 -0.53742766 7.0075909e-39
1.47 -0.25389269 -0.53742766 6.734604e-39
1.47 -0.25904787 -0.53742766 6.8246472e-39
1.47 -0.26420307 -0.53742766 6.2743447e-39
1.47 -0.26935825 -0.53742766 6.272544e-39
1.47 -0.27451342 -0.53742766 5.9956026e-39
1.47 -0.27966863 -0.53742766 5.9952495e-39
1.47 -0.28482378 -0.53742766 6.6395371e-39
1.47 -0.28997895 -0.53742766 6.6402504e-39
1.47 -0.29513416 -0.53742766 6.3647425e-39
1.47 -0.30028933 -0.53742766 6.2750636e-39
1.4640001 -0.30419782 -0.53523415 6.2750608e-39
1.4640001 -0.30933198 -0.53523415 6.3650984e-39
1.3870001 0.59220505 -0.51194727 6.5447939e-39
1.3870001 0.58734089 -0.51194727 6.544438e-39
1.3870001 0.58247679 -0.51194727 6.0859836e-39
1.3870001 0.5776127 -0.51194727 5.9033944e-39
1.3870001 0.5727486 -0.51194727 6.6384385e-39
1.3870001 0.5678845 -0.51194727 7.1901633e-39
1.3870001 0.56302041 -0.51194727 6.5458771e-39
1.3870001 0.55815631 -0.51194727 6.362925e-39
1.3870001 0.55329216 -0.51194727 6.3621991e-39
1.3870001 0.54842806 -0.51194727 6.6351917e-39
1.3870001 0.54356396 -0.51194727 6.1781834e-39
1.3870001 0.53869987 -0.51194727 6.0852815e-39
1.3870001 0.53383577 -0.51194727 6.1785463e-39
1.3920001 0.53087848 -0.51379281 6.54624e-39
1.3920001 0.52599686 -0.51379281 6.6355686e-39
1.3920001 0.52111524 -0.51379281 6.7284831e-39
1.3980001 0.51845878 -0.51600742 6.4540444e-39
1.3980001 0.51355606 -0.51600742 6.2689329e-39
1.3980001 0.5086534 -0.51600742 5.9012392e-39
1.3980001 0.50375074 -0.51600742 6.176031e-39
1.3920001 0.49670702 -0.51379281 6.2685798e-39
1.3920001 0.49182537 -0.51379281 6.2682112e-39
1.3920001 0.48694375 -0.51379281 6.1763687e-39
1.3920001 0.4820621 -0.51379281 5.5353181e-39
1.3920001 0.47718048 -0.51379281 5.4427665e-39
1.3980001 0.47433463 -0.51600742 5.7164794e-39
1.3980001 0.46943191 -0.51600742 5.8987196e-39
1.404 0.4665229 -0.51822203 5.7161262e-39
1.404 0.46159917 -0.51822203 5.8108232e-39
1.404 0.45667547 -0.51822203 5.6242669e-39
1.404 0.45175174 -0.51822203 5.4391666e-39
1.4100001 0.44873753 -0.52043664 5.2562201e-39
1.4100001 0.44379279 -0.52043664 5.3473493e-39
1.4100001 0.43884799 -0.52043664 4.9800088e-39
1.404 0.43205684 -0.51822203 4.9800059e-39
1.404 0.42713311 -0.51822203 5.0718386e-39
1.404 0.42220938 -0.51822203 5.3484157e-39
1.404 0.41728568 -0.51822203 5.8068729e-39
1.3980001 0.41059974 -0.51600742 5.7136109e-39
1.404 0.40743822 -0.51822203 5.3473493e-39
1.4100001 0.40423465 -0.52043664 5.6239306e-39
1.4100001 0.39928988 -0.52043664 5.6239278e-39
1.4100001 0.39434513 -0.52043664 5.072189e-39
1.4100001 0.38940033 -0.52043664 4.8885166e-39
1.4100001 0.38445559 -0.52043664 5.2562229e-39
1.4100001 0.37951082 -0.52043664 5.6228446e-39
1.4100001 0.37456605 -0.52043664 5.3480528e-39
1.404 0.36804843 -0.51822203 5.1615063e-39
1.404 0.3631247 -0.51822203 5.070038e-39
1.4100001 0.35973176 -0.52043664 5.254432e-39
1.4100001 0.35478696 -0.52043664 5.2551509e-39
1.4100001 0.34984222 -0.52043664 5.2547852e-39
1.4100001 0.34489745 -0.52043664 5.1625867e-39
1.4100001 0.33995268 -0.52043664 5.1615091e-39
1.404 0.33358234 -0.51822203 4.9756871e-39
1.404 0.32865861 -0.51822203 4.6090626e-39
1.4100001 0.32511839 -0.52043664 4.6097787e-39
1.4100001 0.32017362 -0.52043664 4.4253902e-39
1.4100001 0.31522885 -0.52043664 3.873664e-39
1.4100001 0.31028411 -0.52043664 3.6889168e-39
1.4100001 0.30533931 -0.52043664 3.5985162e-39
1.4100001 0.30039456 -0.52043664 3.5981533e-39
1.4100001 0.29544979 -0.52043664 3.5992253e-39
1.4100001 0.29050502 -0.52043664 3.5981505e-39
1.4150001 0.28657287 -0.52228218 3.5059577e-39
1.4150001 0.28161058 -0.52228218 3.5041598e-39
1.4150001 0.27664828 -0.52228218 3.135743e-39
1.4150001 0.27168596 -0.52228218 2.8588002e-39
1.4150001 0.26672366 -0.52228218 2.8595093e-39
1.4150001 0.26176137 -0.52228218 2.8591379e-39
1.4100001 0.25589165 -0.52043664 2.8598596e-39
1.4100001 0.25094688 -0.52043664 2.9509832e-39
1.4100001 0.24600214 -0.52043664 3.1335794e-39
1.4150001 0.24191217 -0.52228218 2.7662374e-39
1.4150001 0.23694988 -0.52228218 2.8587904e-39
1.4150001 0.23198757 -0.52228218 3.0424558e-39
1.4150001 0.22702526 -0.52228218 3.1339325e-39
1.4150001 0.22206298 -0.52228218 3.0438977e-39
1.4150001 0.21710066 -0.52228218 3.6878224e-39
1.4210001 0.21303791 -0.52449679 3.5037899e-39
1.427 0.20893303 -0.5267114 3.0438977e-39
1.427 0.20392865 -0.5267114 3.0460501e-39
1.427 0.19892426 -0.5267114 3.9629645e-39
1.427 0.19391988 -0.5267114 3.6867364e-39
1.427 0.18891549 -0.5267114 3.5048633e-39
1.427 0.18391111 -0.5267114 3.7814501e-39
1.427 0.17890672 -0.5267114 4.1473558e-39
1.427 0.17390235 -0.5267114 4.2384752e-39
1.4210001 0.16818781 -0.52449679 4.3321058e-39
1.427 0.16389358 -0.5267114 4.7008855e-39
1.427 0.15888919 -0.5267114 4.2406262e-39
1.4330001 0.15453185 -0.52892601 3.6878196e-39
1.4330001 0.1495064 -0.52892601 3.4144655e-39
1.4330001 0.14448099 -0.52892601 4.5172145e-39
1.4330001 0.13945556 -0.52892601 4.5164872e-39
1.4330001 0.13443014 -0.52892601 4.0555133e-39
1.4330001 0.12940471 -0.52892601 3.5066583e-39
1.4330001 0.12437928 -0.52892601 4.1513019e-39
1.4330001 0.11935386 -0.52892601 4.3331778e-39
1.4330001 0.11432844 -0.52892601 4.1495096e-39
1.4330001 0.10930301 -0.52892601 4.1520305e-39
1.4330001 0.10427759 -0.52892601 4.8874446e-39
1.439 0.09966772 -0.53114069 5.5299399e-39
1.439 0.094621256 -0.53114069 6.0841857e-39
1.439 0.089574784 -0.53114069 6.5483938e-39
1.439 0.08452832 -0.53114069 6.7284831e-39
1.439 0.079481855 -0.53114069 6.179275e-39
1.439 0.074435391 -0.53114069 6.3647425e-39
1.4330001 0.069099598 -0.52892601 6.5476918e-39
1.4330001 0.064074181 -0.52892601 6.6424042e-39
1.4330001 0.059048753 -0.52892601 7.4710858e-39
1.4330001 0.054023325 -0.52892601 7.6518842e-39
1.439 0.049203053 -0.53114069 7.1008782e-39
1.4330001 0.043972474 -0.52892601 8.0239093e-39
1.4330001 0.03894705 -0.52892601 6.9193638e-39
1.4330001 0.033921622 -0.52892601 7.011928e-39
1.4330001 0.0288962 -0.52892601 7.9317108e-39
1.439 0.023970718 -0.53114069 8.0238939e-39
1.439 0.018924251 -0.53114069 7.8405914e-39
1.439 0.013877784 -0.53114069 7.6580008e-39
1.4450001 0.0088681402 -0.5333553 7.1012313e-39
1.439 0.00378485 -0.53114069 8.6696318e-39
1.4450001 -0.0012668772 -0.5333553 7.6583539e-39
1.4450001 -0.0063343858 -0.5333553 7.103748e-39
1.4450001 -0.011401895 -0.5333553 7.102676e-39
1.4450001 -0.016469402 -0.5333553 7.1948717e-39
1.4450001 -0.021536911 -0.5333553 7.1033977e-39
1.4450001 -0.02660442 -0.5333553 7.6554841e-39
1.4450001 -0.031671926 -0.5333553 7.7480328e-39
1.4450001 -0.036739439 -0.5333553 7.4674999e-39
1.4450001 -0.041806947 -0.5333553 7.2859911e-39
1.4450001 -0.046874452 -0.5333553 7.1044753e-39
1.4450001 -0.051941965 -0.5333553 6.919361e-39
1.4450001 -0.05700947 -0.5333553 7.6554813e-39
1.4450001 -0.062076978 -0.5333553 7.6565505e-39
1.4450001 -0.067144483 -0.5333553 7.2856198e-39
1.452 -0.072561808 -0.53593898 7.5629325e-39
1.452 -0.07765387 -0.53593898 7.1927081e-39
1.4450001 -0.082347013 -0.5333553 6.6409748e-39
1.4450001 -0.087414525 -0.5333553 6.7349725e-39
1.4450001 -0.09248203 -0.5333553 7.1962968e-39
1.4450001 -0.097549543 -0.5333553 7.4714418e-39
1.452 -0.10311415 -0.53593898 7.1001551e-39
1.452 -0.10820621 -0.53593898 7.0083154e-39
1.452 -0.11329827 -0.53593898 7.2841736e-39
1.452 -0.11839032 -0.53593898 7.2870477e-39
1.452 -0.12348239 -0.53593898 7.5593158e-39
1.4580001 -0.12910575 -0.53815365 7.1019306e-39
1.452 -0.1336665 -0.53593898 7.0986978e-39
1.4580001 -0.13933195 -0.53815365 6.7310012e-39
1.4580001 -0.14444505 -0.53815365 6.5466086e-39
1.4580001 -0.14955814 -0.53815365 8.4751582e-39
1.4640001 -0.15530774 -0.54036826 1.2043109e-39
1.4640001 -0.16044189 -0.54036826 4.0609615e-39
1.4640001 -0.16557603 -0.54036826 4.7059652e-39
1.4580001 -0.17001052 -0.53815365 5.4438806e-39
1.4580001 -0.17512363 -0.53815365 6.0874479e-39
1.4580001 -0.18023673 -0.53815365 6.4558619e-39
1.4580001 -0.18534982 -0.53815365 6.1799967e-39
1.4580001 -0.19046292 -0.53815365 4.8885516e-39
1.4640001 -0.19638087 -0.54036826 8.3122783e-40
1.4580001 -0.20068912 -0.53815365 3.2326274e-39
1.4580001 -0.20580222 -0.53815365 5.8122932e-39
1.452 -0.21004735 -0.53593898 5.8115687e-39
1.4580001 -0.21602842 -0.53815365 6.1810701e-39
1.4580001 -0.22114152 -0.53815365 6.4580101e-39
1.4640001 -0.22718571 -0.54036826 4.8960948e-39
1.4640001 -0.23231985 -0.54036826 1.1078105e-39
1.4640001 -0.237454 -0.54036826 5.4420757e-39
1.4640001 -0.24258813 -0.54036826 6.1803638e-39
1.4640001 -0.24772228 -0.54036826 6.4555116e-39
1.4640001 -0.2528564 -0.54036826 6.2732657e-39
1.4640001 -0.25799054 -0.54036826 6.0874297e-39
1.4640001 -0.2631247 -0.54036826 6.3658145e-39
1.4640001 -0.26825884 -0.54036826 6.0899506e-39
1.4640001 -0.27339298 -0.54036826 5.7197416e-39
1.4640001 -0.27852711 -0.54036826 6.0874451e-39
1.47 -0.28482378 -0.54258287 6.1781988e-39
1.47 -0.28997895 -0.54258287 5.9945306e-39
1.4640001 -0.29392952 -0.54036826 6.2729154e-39
1.4640001 -0.29906368 -0.54036826 6.2739944e-39
1.4640001 -0.30419782 -0.54036826 6.1799995e-39
1.4580001 -0.30806419 -0.53815365 6.2743475e-39
1.376 0.59233391 -0.51271266 6.7309844e-39
1.381 0.58964318 -0.51457566 7.19195e-39
1.381 0.58480012 -0.51457566 7.0054035e-39
1.381 0.57995707 -0.51457566 6.2696461e-39
1.381 0.57511401 -0.51457566 6.3614929e-39
1.381 0.57027096 -0.51457566 6.2685826e-39
1.381 0.56542784 -0.51457566 6.3607796e-39
1.3870001 0.56302041 -0.51681137 6.4533284e-39
1.3870001 0.55815631 -0.51681137 6.5473092e-39
1.3870001 0.55329216 -0.51681137 6.9146526e-39
1.3870001 0.54842806 -0.51681137 6.2696461e-39
1.381 0.54121256 -0.51457566 6.0863367e-39
1.381 0.5363695 -0.51457566 6.1763813e-39
1.3870001 0.53383577 -0.51681137 5.7172081e-39
1.3870001 0.52897161 -0.51681137 6.1760282e-39
1.3870001 0.52410758 -0.51681137 6.54624e-39
1.3920001 0.52111524 -0.51867443 7.0979649e-39
1.3920001 0.51623362 -0.51867443 6.9139338e-39
1.3920001 0.51135194 -0.51867443 6.4525983e-39
1.3920001 0.50647032 -0.51867443 5.9005077e-39
1.3920001 0.5015887 -0.51867443 5.9001546e-39
1.3920001 0.49670702 -0.51867443 5.7175612e-39
1.3920001 0.49182537 -0.51867443 5.6264347e-39
1.3920001 0.48694375 -0.51867443 5.9037391e-39
1.3920001 0.4820621 -0.51867443 5.9934222e-39
1.3920001 0.47718048 -0.51867443 5.9005077e-39
1.3920001 0.47229883 -0.51867443 5.9005077e-39
1.3920001 0.46741721 -0.51867443 5.7164766e-39
1.3980001 0.46452925 -0.52091008 5.255867e-39
1.3920001 0.45765388 -0.51867443 5.4406184e-39
1.3920001 0.45277223 -0.51867443 5.5313678e-39
1.3980001 0.4498212 -0.52091008 5.3487717e-39
1.404 0.44682801 -0.52314574 5.6242823e-39
1.404 0.44190428 -0.52314574 5.6224915e-39
1.404 0.43698055 -0.52314574 5.4377443e-39
1.3980001 0.43021044 -0.52091008 5.4377471e-39
1.3980001 0.42530778 -0.52091008 5.6239306e-39
1.3980001 0.42040509 -0.52091008 6.1767317e-39
1.3980001 0.4155024 -0.52091008 6.2671322e-39
1.3980001 0.41059974 -0.52091008 5.6235635e-39
1.3980001 0.40569705 -0.52091008 5.6224887e-39
1.3980001 0.40079436 -0.52091008 5.5306588e-39
1.3980001 0.3958917 -0.52091008 5.2551509e-39
1.3980001 0.39098901 -0.52091008 5.1625839e-39
1.3980001 0.38608631 -0.52091008 4.9799905e-39
1.3980001 0.38118362 -0.52091008 5.4388163e-39
1.3920001 0.37466601 -0.51867443 5.2551509e-39
1.3920001 0.36978436 -0.51867443 4.8892396e-39
1.3920001 0.36490273 -0.51867443 4.9789143e-39
1.3920001 0.36002105 -0.51867443 4.7023331e-39
1.404 0.35820097 -0.52314574 5.1622336e-39
1.404 0.35327724 -0.52314574 5.2533502e-39
1.4100001 0.34984222 -0.52538145 5.2533502e-39
1.404 0.34342977 -0.52314574 5.2537034e-39
1.404 0.33850607 -0.52314574 4.7927252e-39
1.404 0.33358234 -0.52314574 4.6079808e-39
1.404 0.32865861 -0.52314574 3.873664e-39
1.404 0.32373491 -0.52314574 4.0569763e-39
1.404 0.31881118 -0.52314574 4.0569735e-39
1.404 0.31388745 -0.52314574 3.9665771e-39
1.404 0.30896372 -0.52314574 4.4250371e-39
1.404 0.30404001 -0.52314574 4.0562574e-39
1.4100001 0.30039456 -0.52538145 3.5066765e-39
1.4100001 0.29544979 -0.52538145 3.8747374e-39
1.4100001 0.29050502 -0.52538145 3.4134061e-39
1.4100001 0.28556025 -0.52538145 3.1378982e-39
1.4100001 0.28061548 -0.52538145 3.6874721e-39
1.4100001 0.27567074 -0.52538145 2.9535028e-39
1.4100001 0.27072594 -0.52538145 2.7683926e-39
1.4100001 0.26578119 -0.52538145 2.8605883e-39
1.4100001 0.26083642 -0.52538145 3.226131e-39
1.4100001 0.25589165 -0.52538145 3.2246918e-39
1.4100001 0.25094688 -0.52538145 2.8587876e-39
1.4100001 0.24600214 -0.52538145 2.7655158e-39
1.4100001 0.24105735 -0.52538145 2.7655214e-39
1.4100001 0.23611259 -0.52538145 2.4907295e-39
1.4100001 0.23116782 -0.52538145 2.7665906e-39
1.4100001 0.22622307 -0.52538145 3.1335766e-39
1.4150001 0.22206298 -0.52724451 2.9517049e-39
1.4150001 0.21710066 -0.52724451 3.5037899e-39
1.4150001 0.21213837 -0.52724451 3.7796523e-39
1.427 0.20893303 -0.53171581 3.3190399e-39
1.4210001 0.20307121 -0.52948016 3.2286449e-39
1.427 0.19892426 -0.53171581 3.6874524e-39
1.4210001 0.19310454 -0.52948016 3.9633135e-39
1.4210001 0.18812118 -0.52948016 4.0544413e-39
1.4210001 0.18313785 -0.52948016 3.778946e-39
1.4210001 0.1781545 -0.52948016 3.5034339e-39
1.4210001 0.17317115 -0.52948016 3.7814501e-39
1.4210001 0.16818781 -0.52948016 4.3335421e-39
1.4210001 0.16320448 -0.52948016 4.4250217e-39
1.427 0.15888919 -0.53171581 4.1502257e-39
1.427 0.15388481 -0.53171581 3.8750709e-39
1.4330001 0.1495064 -0.53395146 4.5172145e-39
1.4330001 0.14448099 -0.53395146 4.884195e-39
1.4330001 0.13945556 -0.53395146 4.609036e-39
1.427 0.13386728 -0.53171581 4.5164872e-39
1.427 0.12886289 -0.53171581 4.6083368e-39
1.4330001 0.12437928 -0.53395146 4.9778381e-39
1.4330001 0.11935386 -0.53395146 5.2536992e-39
1.427 0.11384974 -0.53171581 4.8859984e-39
1.427 0.10884535 -0.53171581 4.7048484e-39
1.427 0.10384096 -0.53171581 5.1658223e-39
1.4330001 0.099252157 -0.53395146 5.8108232e-39
1.4330001 0.094226733 -0.53395146 6.6395049e-39
1.4330001 0.089201301 -0.53395146 6.8217507e-39
1.427 0.083823428 -0.53171581 6.4515389e-39
1.427 0.078819044 -0.53171581 5.8104925e-39
1.4330001 0.074125029 -0.53395146 6.2703916e-39
1.4330001 0.069099598 -0.53395146 6.4569381e-39
1.427 0.063805893 -0.53171581 7.1970241e-39
1.4330001 0.059048753 -0.53395146 7.2877736e-39
1.427 0.053797126 -0.53171581 6.6402405e-39
1.4330001 0.048997901 -0.53395146 6.1799967e-39
1.4330001 0.043972474 -0.53395146 6.6391868e-39
1.427 0.038783975 -0.53171581 6.3643949e-39
1.427 0.033779591 -0.53171581 8.0242834e-39
1.4330001 0.0288962 -0.53395146 7.7466007e-39
1.4330001 0.023870772 -0.53395146 7.4689194e-39
1.439 0.018924251 -0.53618711 7.0129845e-39
1.439 0.013877784 -0.53618711 7.1927053e-39
1.439 0.0088313166 -0.53618711 7.4710858e-39
1.439 0.00378485 -0.53618711 9.0369836e-39
1.439 -0.0012616167 -0.53618711 8.2086509e-39
1.439 -0.0063080839 -0.53618711 7.7473028e-39
1.439 -0.011354551 -0.53618711 7.4689348e-39
1.4450001 -0.016469402 -0.53842276 7.0086783e-39
1.4450001 -0.021536911 -0.53842276 6.9186323e-39
1.439 -0.026493952 -0.53618711 7.4728851e-39
1.439 -0.031540416 -0.53618711 7.8391495e-39
1.4450001 -0.036739439 -0.53842276 7.4717921e-39
1.4450001 -0.041806947 -0.53842276 7.9342122e-39
1.439 -0.046679817 -0.53618711 7.4707355e-39
1.439 -0.051726285 -0.53618711 7.1008782e-39
1.439 -0.05677275 -0.53618711 7.2877764e-39
1.439 -0.061819222 -0.53618711 7.4703698e-39
1.439 -0.066865683 -0.53618711 7.2863386e-39
1.4450001 -0.072212003 -0.53842276 7.5640017e-39
1.439 -0.076958619 -0.53618711 7.0093846e-39
1.439 -0.082005091 -0.53618711 6.4580129e-39
1.4450001 -0.087414525 -0.53842276 7.0079623e-39
1.4450001 -0.09248203 -0.53842276 7.3785399e-39
1.4450001 -0.097549543 -0.53842276 7.0104678e-39
1.4450001 -0.10261705 -0.53842276 6.6406035e-39
1.4450001 -0.10768456 -0.53842276 7.2881239e-39
1.4450001 -0.11275207 -0.53842276 7.9291745e-39
1.4450001 -0.11781958 -0.53842276 7.2859729e-39
1.4450001 -0.12288709 -0.53842276 7.0075965e-39
1.452 -0.12857445 -0.54103106 7.1930612e-39
1.452 -0.1336665 -0.54103106 7.6525848e-39
1.452 -0.13875856 -0.54103106 6.9160988e-39
1.452 -0.14385061 -0.54103106 6.5480435e-39
1.4580001 -0.14955814 -0.54326671 6.5462555e-39
1.47 -0.15594426 -0.54773802 7.9237865e-39
1.4640001 -0.16044189 -0.54550242 1.3865526e-39
1.4580001 -0.16489743 -0.54326671 3.7825768e-39
1.452 -0.1693109 -0.54103106 5.07654e-39
1.452 -0.17440295 -0.54103106 5.9938174e-39
1.452 -0.17949502 -0.54103106 5.9948866e-39
1.452 -0.18458708 -0.54103106 6.180347e-39
1.4580001 -0.19046292 -0.54326671 5.2530027e-39
1.4580001 -0.19557603 -0.54326671 7.3866646e-40
1.452 -0.19986324 -0.54103106 5.7190255e-39
1.452 -0.20495529 -0.54103106 5.9955998e-39
1.452 -0.21004735 -0.54103106 5.9945152e-39
1.452 -0.2151394 -0.54103106 6.0874353e-39
1.4580001 -0.22114152 -0.54326671 6.2710979e-39
1.4580001 -0.22625461 -0.54326671 4.2367026e-39
1.4580001 -0.23136772 -0.54326671 4.0555567e-39
1.4580001 -0.23648082 -0.54326671 6.3636621e-39
1.452 -0.24059969 -0.54103106 6.916117e-39
1.452 -0.24569175 -0.54103106 6.4569409e-39
1.4580001 -0.25182012 -0.54326671 6.0906695e-39
1.4580001 -0.25693321 -0.54326671 6.6409594e-39
1.4580001 -0.26204631 -0.54326671 6.5484079e-39
1.4640001 -0.26825884 -0.54550242 6.1810701e-39
1.4640001 -0.27339298 -0.54550242 6.0913982e-39
1.4640001 -0.27852711 -0.54550242 6.2757824e-39
1.4640001 -0.28366128 -0.54550242 6.3661648e-39
1.4640001 -0.28879541 -0.54550242 6.2732489e-39
1.4640001 -0.29392952 -0.54550242 6.178196e-39
1.4640001 -0.29906368 -0.54550242 6.0867263e-39
1.4640001 -0.30419782 -0.54550242 6.1799995e-39
1.4580001 -0.30806419 -0.54326671 6.2750762e-39
1.381 0.5944863 -0.51941878 6.7309872e-39
1.381 0.58964318 -0.51941878 6.9142967e-39
1.381 0.58480012 -0.51941878 6.7302586e-39
1.381 0.57995707 -0.51941878 6.178884e-39
1.376 0.57303178 -0.51753819 6.4543975e-39
1.381 0.57027096 -0.51941878 6.0863339e-39
1.381 0.56542784 -0.51941878 6.3589775e-39
1.381 0.56058478 -0.51941878 5.8108456e-39
1.3870001 0.55815631 -0.52167547 6.2703762e-39
1.381 0.55089867 -0.51941878 6.5465932e-39
1.381 0.54605561 -0.51941878 6.4543947e-39
1.381 0.54121256 -0.51941878 6.362925e-39
1.381 0.5363695 -0.51941878 6.8213878e-39
1.381 0.53152645 -0.51941878 6.4515235e-39
1.3870001 0.52897161 -0.52167547 5.9934194e-39
1.3870001 0.52410758 -0.52167547 6.6366406e-39
1.3870001 0.51924342 -0.52167547 6.3614957e-39
1.3870001 0.51437932 -0.52167547 6.1785337e-39
1.3870001 0.50951517 -0.52167547 6.2685643e-39
1.3870001 0.50465113 -0.52167547 7.0050504e-39
1.3870001 0.49978697 -0.52167547 6.4525983e-39
1.3870001 0.49492288 -0.52167547 6.1760156e-39
1.3870001 0.49005881 -0.52167547 5.5335301e-39
1.3870001 0.48519465 -0.52167547 5.7179241e-39
1.3870001 0.48033059 -0.52167547 5.71828e-39
1.3920001 0.47718048 -0.52355605 5.7175556e-39
1.3920001 0.47229883 -0.52355605 5.9022958e-39
1.3920001 0.46741721 -0.52355605 5.9934194e-39
1.3920001 0.46253556 -0.52355605 5.0725547e-39
1.3920001 0.45765388 -0.52355605 5.0732736e-39
1.3920001 0.45277223 -0.52355605 5.4388191e-39
1.3920001 0.44789064 -0.52355605 5.3473493e-39
1.3980001 0.44491851 -0.5258128 5.5299455e-39
1.3920001 0.43812734 -0.52355605 5.0721918e-39
1.3980001 0.43511313 -0.5258128 5.073261e-39
1.3920001 0.42836407 -0.52355605 5.3484185e-39
1.3920001 0.42348239 -0.52355605 5.5324609e-39
1.3920001 0.41860077 -0.52355605 5.7168521e-39
1.3920001 0.41371912 -0.52355605 5.6242823e-39
1.3920001 0.4088375 -0.52355605 5.5331615e-39
1.3920001 0.40395585 -0.52355605 5.8083093e-39
1.3920001 0.3990742 -0.52355605 5.34805e-39
1.3920001 0.39419258 -0.52355605 5.1629371e-39
1.3920001 0.38931093 -0.52355605 5.1629371e-39
1.3920001 0.38442928 -0.52355605 5.1633056e-39
1.3920001 0.37954763 -0.52355605 4.8874418e-39
1.3920001 0.37466601 -0.52355605 4.9796374e-39
1.3920001 0.36978436 -0.52355605 5.255504e-39
1.3920001 0.36490273 -0.52355605 4.9778409e-39
1.3920001 0.36002105 -0.52355605 4.6119367e-39
1.3920001 0.35513943 -0.52355605 4.8906648e-39
1.3920001 0.35025778 -0.52355605 4.7981034e-39
1.3980001 0.34686485 -0.5258128 4.9778381e-39
1.404 0.34342977 -0.5280695 4.7930938e-39
1.3980001 0.3370595 -0.5258128 4.6108535e-39
1.3980001 0.33215681 -0.5258128 4.6108535e-39
1.3980001 0.32725412 -0.5258128 4.4253874e-39
1.3980001 0.32235143 -0.5258128 3.9644149e-39
1.3980001 0.31744874 -0.5258128 3.7814656e-39
1.404 0.31388745 -0.5280695 3.9665771e-39
1.404 0.30896372 -0.5280695 3.9676519e-39
1.404 0.30404001 -0.5280695 3.8747346e-39
1.404 0.29911625 -0.5280695 3.5995924e-39
1.404 0.29419252 -0.5280695 3.8743815e-39
1.3980001 0.28803265 -0.5258128 3.6885511e-39
1.404 0.28434509 -0.5280695 3.1378954e-39
1.404 0.27942136 -0.5280695 3.1378954e-39
1.404 0.27449766 -0.5280695 3.2286477e-39
1.404 0.26957393 -0.5280695 3.3197643e-39
1.404 0.2646502 -0.5280695 2.9538559e-39
1.404 0.25972649 -0.5280695 2.8616575e-39
1.4100001 0.25589165 -0.53032619 2.8587848e-39
1.404 0.24987903 -0.5280695 2.5839986e-39
1.404 0.24495529 -0.5280695 2.5832783e-39
1.404 0.24003157 -0.5280695 2.4907267e-39
1.404 0.23510784 -0.5280695 2.5818434e-39
1.4100001 0.23116782 -0.53032619 2.9513364e-39
1.4100001 0.22622307 -0.53032619 3.2268442e-39
1.4150001 0.22206298 -0.53220677 3.0421027e-39
1.4100001 0.21633352 -0.53032619 3.2264939e-39
1.4100001 0.21138877 -0.53032619 3.4123103e-39
1.4210001 0.20805456 -0.53446352 3.597412e-39
1.4210001 0.20307121 -0.53446352 4.0555133e-39
1.4210001 0.19808787 -0.53446352 3.9633177e-39
1.4210001 0.19310454 -0.53446352 4.4235727e-39
1.4210001 0.18812118 -0.53446352 4.5150495e-39
1.4150001 0.18236455 -0.53220677 4.056235e-39
1.4150001 0.17740226 -0.53220677 3.8725668e-39
1.4150001 0.17243996 -0.53220677 4.1495096e-39
1.4150001 0.16747765 -0.53220677 4.6097689e-39
1.4150001 0.16251536 -0.53220677 4.3346211e-39
1.4210001 0.15822113 -0.53446352 4.2431472e-39
1.4210001 0.15323779 -0.53446352 4.4275356e-39
1.427 0.14888042 -0.53672022 4.6097661e-39
1.4210001 0.14327109 -0.53446352 4.5179334e-39
1.4210001 0.13828777 -0.53446352 4.6097633e-39
1.4210001 0.13330442 -0.53446352 4.886346e-39
1.427 0.12886289 -0.53672022 4.8863488e-39
1.427 0.1238585 -0.53672022 4.7956021e-39
1.427 0.11885411 -0.53672022 5.0700408e-39
1.4210001 0.11337104 -0.53446352 4.9792871e-39
1.4210001 0.10838771 -0.53446352 5.8065226e-39
1.4210001 0.10340436 -0.53446352 5.9930691e-39
1.4210001 0.098421015 -0.53446352 6.8239059e-39
1.427 0.093832195 -0.53672022 6.9150212e-39
1.4210001 0.088454328 -0.53446352 6.4536913e-39
1.4210001 0.083470993 -0.53446352 6.2710853e-39
1.4210001 0.07848765 -0.53446352 6.5487442e-39
1.4210001 0.073504299 -0.53446352 6.270379e-39
1.4210001 0.068520963 -0.53446352 6.8257164e-39
1.4210001 0.06353762 -0.53446352 7.1033823e-39
1.4210001 0.058554273 -0.53446352 7.6554813e-39
1.4210001 0.053570934 -0.53446352 6.9189882e-39
1.4210001 0.04858759 -0.53446352 7.0068679e-39
1.4210001 0.043604247 -0.53446352 6.7328047e-39
1.4210001 0.038620904 -0.53446352 7.5658052e-39
1.4210001 0.033637565 -0.53446352 7.7473238e-39
1.4210001 0.02865422 -0.53446352 7.6540478e-39
1.427 0.023770824 -0.53672022 7.5639877e-39
1.4330001 0.018845346 -0.53897691 7.1959255e-39
1.439 0.013877784 -0.54123354 6.8275157e-39
1.439 0.0088313166 -0.54123354 8.3926932e-39
1.439 0.00378485 -0.54123354 8.8490008e-39
1.439 -0.0012616167 -0.54123354 8.114307e-39
1.439 -0.0063080839 -0.54123354 8.5788655e-39
1.439 -0.011354551 -0.54123354 8.1135714e-39
1.439 -0.016401017 -0.54123354 6.827866e-39
1.439 -0.021447483 -0.54123354 7.4746605e-39
1.4330001 -0.026383486 -0.53897691 7.6558316e-39
1.439 -0.031540416 -0.54123354 7.1026732e-39
1.439 -0.036586884 -0.54123354 7.6562002e-39
1.439 -0.041633353 -0.54123354 7.6554785e-39
1.4330001 -0.046485189 -0.53897691 7.2856198e-39
1.4330001 -0.05151061 -0.53897691 6.921149e-39
1.4330001 -0.056536034 -0.53897691 7.3788874e-39
1.4330001 -0.061561462 -0.53897691 7.2856198e-39
1.4330001 -0.066586889 -0.53897691 7.1055473e-39
1.439 -0.071912155 -0.54123354 5.4442281e-39
1.439 -0.076958619 -0.54123354 6.272544e-39
1.439 -0.082005091 -0.54123354 6.7363948e-39
1.439 -0.087051556 -0.54123354 7.2863232e-39
1.439 -0.09209802 -0.54123354 7.6551071e-39
1.439 -0.097144492 -0.54123354 6.9157512e-39
1.4450001 -0.10261705 -0.54349029 6.7338711e-39
1.4450001 -0.10768456 -0.54349029 7.6543855e-39
1.4450001 -0.11275207 -0.54349029 7.8387795e-39
1.4450001 -0.11781958 -0.54349029 6.7349501e-39
1.4450001 -0.12288709 -0.54349029 7.6540351e-39
1.4450001 -0.12795459 -0.54349029 7.378893e-39
1.4450001 -0.1330221 -0.54349029 7.9291745e-39
1.4450001 -0.13808961 -0.54349029 7.2823603e-39
1.4450001 -0.14315711 -0.54349029 6.7317061e-39
1.4450001 -0.14822462 -0.54349029 7.1890913e-39
1.452 -0.15403472 -0.54612315 6.2711007e-39
1.4640001 -0.16044189 -0.55063653 6.452248e-39
1.452 -0.16421883 -0.54612315 2.02975e-39
1.4450001 -0.16849467 -0.54349029 3.4206144e-39
1.4450001 -0.17356217 -0.54349029 5.3509591e-39
1.4450001 -0.17862968 -0.54349029 5.5357007e-39
1.4450001 -0.18369719 -0.54349029 5.5342587e-39
1.452 -0.18967913 -0.54612315 3.2290149e-39
1.452 -0.19477119 -0.54612315 2.2101938e-39
1.4450001 -0.19889972 -0.54349029 5.5353475e-39
1.4450001 -0.20396721 -0.54349029 6.1821463e-39
1.452 -0.21004735 -0.54612315 6.1807001e-39
1.4450001 -0.21410224 -0.54349029 5.8122876e-39
1.4450001 -0.21916975 -0.54349029 5.2576718e-39
1.4450001 -0.22423726 -0.54349029 3.5927583e-39
1.4450001 -0.22930478 -0.54349029 4.063816e-39
1.4450001 -0.23437227 -0.54349029 6.1807197e-39
1.4450001 -0.23943979 -0.54349029 6.5498554e-39
1.4450001 -0.2445073 -0.54349029 6.640256e-39
1.452 -0.2507838 -0.54612315 6.0903164e-39
1.452 -0.25587586 -0.54612315 6.5512777e-39
1.452 -0.26096791 -0.54612315 6.3647425e-39
1.452 -0.26605999 -0.54612315 5.9963285e-39
1.452 -0.27115202 -0.54612315 6.1825176e-39
1.4580001 -0.27738559 -0.54837984 6.3651138e-39
1.4640001 -0.28366128 -0.55063653 6.4558591e-39
1.4580001 -0.28761181 -0.54837984 6.4576444e-39
1.4640001 -0.29392952 -0.55063653 6.273616e-39
1.4580001 -0.297838 -0.54837984 5.9977578e-39
1.4580001 -0.3029511 -0.54837984 5.9041357e-39
1.452 -0.30679643 -0.54612315 5.9948992e-39
1.3700001 0.58975106 -0.52008599 6.2689329e-39
1.376 0.58750832 -0.52236372 6.2685798e-39
1.376 0.58268285 -0.52236372 6.1781834e-39
1.376 0.57785726 -0.52236372 6.271451e-39
1.3700001 0.5705331 -0.52008599 6.4536759e-39
1.3700001 0.56572866 -0.52008599 6.5462274e-39
1.376 0.56338072 -0.52236372 5.9955718e-39
1.376 0.55855519 -0.52236372 6.1767317e-39
1.381 0.55574173 -0.52426183 6.0856206e-39
1.376 0.54890412 -0.52236372 6.2707322e-39
1.376 0.54407859 -0.52236372 6.7295523e-39
1.376 0.53925306 -0.52236372 6.9135806e-39
1.376 0.53442752 -0.52236372 6.9099835e-39
1.376 0.52960199 -0.52236372 6.3614816e-39
1.381 0.52668339 -0.52426183 6.2718013e-39
1.381 0.52184027 -0.52426183 6.0856206e-39
1.381 0.51699722 -0.52426183 6.1753093e-39
1.381 0.51215416 -0.52426183 5.9937879e-39
1.381 0.50731111 -0.52426183 6.3632809e-39
1.3870001 0.50465113 -0.52653956 6.4525983e-39
1.3870001 0.49978697 -0.52653956 6.7266684e-39
1.3870001 0.49492288 -0.52653956 6.3614816e-39
1.3870001 0.49005881 -0.52653956 5.9941411e-39
1.3870001 0.48519465 -0.52653956 5.4431351e-39
1.3870001 0.48033059 -0.52653956 5.2580222e-39
1.3870001 0.47546646 -0.52653956 5.6242767e-39
1.3870001 0.47060236 -0.52653956 5.9019426e-39
1.3920001 0.46741721 -0.52843767 5.9912712e-39
1.3920001 0.46253556 -0.52843767 5.3484213e-39
1.3870001 0.45601004 -0.52653956 5.4409645e-39
1.3870001 0.45114592 -0.52653956 5.4413204e-39
1.3870001 0.44628182 -0.52653956 5.0703911e-39
1.3920001 0.44300896 -0.52843767 4.9785612e-39
1.3920001 0.43812734 -0.52843767 5.1651035e-39
1.3920001 0.43324569 -0.52843767 4.8910333e-39
1.3920001 0.42836407 -0.52843767 4.9803591e-39
1.3920001 0.42348239 -0.52843767 4.9803619e-39
1.3920001 0.41860077 -0.52843767 5.5328112e-39
1.3920001 0.41371912 -0.52843767 5.5331671e-39
1.3920001 0.4088375 -0.52843767 5.5328112e-39
1.3920001 0.40395585 -0.52843767 5.7161234e-39
1.3920001 0.3990742 -0.52843767 5.6235607e-39
1.3920001 0.39419258 -0.52843767 5.5317182e-39
1.3920001 0.38931093 -0.52843767 5.2551355e-39
1.3920001 0.38442928 -0.52843767 4.8874418e-39
1.3920001 0.37954763 -0.52843767 5.2547852e-39
1.3920001 0.37466601 -0.52843767 5.3487717e-39
1.3920001 0.36978436 -0.52843767 5.0736239e-39
1.3920001 0.36490273 -0.52843767 4.8877949e-39
1.3920001 0.36002105 -0.52843767 5.070754e-39
1.3920001 0.35513943 -0.52843767 5.0721918e-39
1.3920001 0.35025778 -0.52843767 5.1633056e-39
1.3980001 0.34686485 -0.53071547 4.8859984e-39
1.3980001 0.34196216 -0.53071547 4.7934441e-39
1.3920001 0.33561286 -0.52843767 4.6104976e-39
1.3920001 0.33073121 -0.52843767 4.6097843e-39
1.3920001 0.32584959 -0.52843767 4.5168698e-39
1.3920001 0.32096791 -0.52843767 4.0573266e-39
1.3920001 0.31608629 -0.52843767 3.7818187e-39
1.3920001 0.31120464 -0.52843767 3.5988694e-39
1.3980001 0.30764338 -0.53071547 3.3237244e-39
1.3920001 0.30144137 -0.52843767 3.415204e-39
1.3920001 0.29655972 -0.52843767 3.8736612e-39
1.3920001 0.2916781 -0.52843767 4.0566105e-39
1.3920001 0.28679645 -0.52843767 3.3212077e-39
1.3980001 0.28312996 -0.53071547 3.0456998e-39
1.3980001 0.2782273 -0.53071547 3.0478536e-39
1.3980001 0.27332461 -0.53071547 3.2290149e-39
1.3980001 0.26842192 -0.53071547 3.1353801e-39
1.3980001 0.26351923 -0.53071547 2.8613043e-39
1.3980001 0.25861654 -0.53071547 2.8595037e-39
1.3980001 0.25371385 -0.53071547 2.7665906e-39
1.3980001 0.24881119 -0.53071547 2.4003276e-39
1.3980001 0.24390849 -0.53071547 2.5839958e-39
1.404 0.24003157 -0.5329932 2.4907267e-39
1.404 0.23510784 -0.5329932 2.6733201e-39
1.404 0.23018412 -0.5329932 3.226131e-39
1.4100001 0.22622307 -0.53527093 3.6863833e-39
1.4100001 0.22127829 -0.53527093 3.6856574e-39
1.404 0.21541296 -0.5329932 3.1346486e-39
1.404 0.21048923 -0.5329932 3.1342983e-39
1.4150001 0.20717606 -0.53716904 3.4112383e-39
1.4150001 0.20221376 -0.53716904 4.1477089e-39
1.4150001 0.19725147 -0.53716904 4.6994338e-39
1.4150001 0.19228916 -0.53716904 4.5161215e-39
1.4150001 0.18732686 -0.53716904 4.1484278e-39
1.4150001 0.18236455 -0.53716904 4.0547972e-39
1.4150001 0.17740226 -0.53716904 4.2406234e-39
1.4150001 0.17243996 -0.53716904 4.5182893e-39
1.4150001 0.16747765 -0.53716904 4.7934441e-39
1.4150001 0.16251536 -0.53716904 4.2431472e-39
1.4210001 0.15822113 -0.53944683 4.2427912e-39
1.4210001 0.15323779 -0.53944683 4.3346239e-39
1.4210001 0.14825444 -0.53944683 4.3349771e-39
1.4210001 0.14327109 -0.53944683 4.5182893e-39
1.4210001 0.13828777 -0.53944683 4.6104849e-39
1.4210001 0.13330442 -0.53944683 4.9785472e-39
1.4210001 0.12832107 -0.53944683 4.8863488e-39
1.4210001 0.12333773 -0.53944683 4.9785472e-39
1.4210001 0.11835439 -0.53944683 5.07111e-39
1.4210001 0.11337104 -0.53944683 5.0721862e-39
1.4210001 0.10838771 -0.53944683 5.5349622e-39
1.4210001 0.10340436 -0.53944683 6.3639998e-39
1.4210001 0.098421015 -0.53944683 6.9146652e-39
1.4210001 0.093437679 -0.53944683 6.2689469e-39
1.4210001 0.088454328 -0.53944683 6.1785337e-39
1.4210001 0.083470993 -0.53944683 6.273602e-39
1.4210001 0.07848765 -0.53944683 6.1778275e-39
1.4210001 0.073504299 -0.53944683 6.6402377e-39
1.4210001 0.068520963 -0.53944683 7.1019306e-39
1.4210001 0.06353762 -0.53944683 6.9157512e-39
1.4210001 0.058554273 -0.53944683 6.4558591e-39
1.4210001 0.053570934 -0.53944683 6.8250003e-39
1.4210001 0.04858759 -0.53944683 6.4580129e-39
1.4210001 0.043604247 -0.53944683 7.0093846e-39
1.4210001 0.038620904 -0.53944683 7.2902917e-39
1.4210001 0.033637565 -0.53944683 7.2863414e-39
1.4210001 0.02865422 -0.53944683 7.1934269e-39
1.4210001 0.023670878 -0.53944683 7.1952276e-39
1.427 0.01876644 -0.54172456 7.102676e-39
1.427 0.013762056 -0.54172456 7.1959465e-39
1.427 0.0087576723 -0.54172456 8.4866825e-39
1.4330001 0.0037690692 -0.54400229 8.4823665e-39
1.4330001 -0.0012563564 -0.54400229 7.3796231e-39
1.4330001 -0.0062817819 -0.54400229 7.565815e-39
1.4330001 -0.011307208 -0.54400229 7.5632885e-39
1.4330001 -0.016332634 -0.54400229 6.73532e-39
1.427 -0.021268632 -0.54172456 7.2877764e-39
1.427 -0.026273016 -0.54172456 6.8278842e-39
1.427 -0.0312774 -0.54172456 7.19738e-39
1.427 -0.036281787 -0.54172456 7.2881407e-39
1.427 -0.04128617 -0.54172456 7.3785399e-39
1.427 -0.046290554 -0.54172456 7.2863414e-39
1.427 -0.051294938 -0.54172456 7.5650863e-39
1.427 -0.056299321 -0.54172456 7.6536848e-39
1.427 -0.061303705 -0.54172456 7.1962968e-39
1.427 -0.066308089 -0.54172456 6.7371207e-39
1.4330001 -0.071612321 -0.54400229 6.0899534e-39
1.439 -0.076958619 -0.54628003 5.9052049e-39
1.439 -0.082005091 -0.54628003 7.5640017e-39
1.439 -0.087051556 -0.54628003 7.4735913e-39
1.4330001 -0.091714017 -0.54400229 7.744786e-39
1.4330001 -0.096739441 -0.54400229 6.9182652e-39
1.439 -0.10219095 -0.54628003 7.8394998e-39
1.439 -0.10723742 -0.54628003 7.6551015e-39
1.439 -0.11228389 -0.54628003 7.4717893e-39
1.439 -0.11733035 -0.54628003 7.2881267e-39
1.439 -0.12237683 -0.54628003 7.4664195e-39
1.439 -0.12742329 -0.54628003 6.9146947e-39
1.439 -0.13246976 -0.54628003 7.5632815e-39
1.439 -0.13751622 -0.54628003 7.4674733e-39
1.4450001 -0.14315711 -0.54855776 6.6413097e-39
1.4450001 -0.14822462 -0.54855776 6.4576415e-39
1.4450001 -0.15329213 -0.54855776 6.8239059e-39
1.4450001 -0.16342716 -0.54855776 6.545147e-39
1.439 -0.16779503 -0.54628003 2.7658717e-39
1.439 -0.17284149 -0.54628003 3.0496837e-39
1.439 -0.17788796 -0.54628003 6.1843141e-39
1.439 -0.18293442 -0.54628003 7.3738553e-39
1.439 -0.18798089 -0.54628003 3.6881979e-39
1.4450001 -0.1938322 -0.54855776 2.3027426e-39
